# .PCD v0.7 - Point Cloud Data file format
VERSION 0.7
FIELDS x y z rgba
SIZE 4 4 4 4
TYPE F F F U
COUNT 1 1 1 1
WIDTH 1046
HEIGHT 1
VIEWPOINT 0 0 0 1 0 0 0
POINTS 1046
DATA ascii
0.44470891 -0.34954295 0.020818587 4286364028
0.44375652 -0.3495428 0.020820118 4286298235
0.4428041 -0.34954265 0.02082165 4286429821
0.44185168 -0.3495425 0.020823181 4286364028
0.44089928 -0.34954235 0.020824712 4286298235
0.43994686 -0.34954223 0.020826245 4286495614
0.43899447 -0.34954208 0.020827776 4286166649
0.43804204 -0.34954193 0.020829307 4286627200
0.43708965 -0.34954178 0.020830838 4286429821
0.43613723 -0.34954163 0.020832369 4286495614
0.43518484 -0.34954149 0.020833902 4286429821
0.43423241 -0.34954137 0.020835433 4286495614
0.43327999 -0.34954122 0.020836964 4286364028
0.4323276 -0.34954107 0.020838495 4286364028
0.43137518 -0.34954092 0.020840026 4286100856
0.43042278 -0.34954077 0.020841559 4286298235
0.42947036 -0.34954065 0.02084309 4286232442
0.42851797 -0.3495405 0.020844622 4286298235
0.42756554 -0.34954035 0.020846153 4286495614
0.42661312 -0.3495402 0.020847684 4286364028
0.37614018 -0.31810305 0.020939946 4286429821
0.3751879 -0.3171505 0.020941814 4286364028
0.37423566 -0.31619793 0.020943681 4286364028
0.37709245 -0.31905562 0.02093808 4286364028
0.37804469 -0.32000816 0.020936212 4286429821
0.37328336 -0.31524539 0.020945551 4286429821
0.37233111 -0.31429285 0.020947417 4286495614
0.37899694 -0.3209607 0.020934343 4286166649
0.37137884 -0.31334028 0.020949284 4286298235
0.37994924 -0.32191327 0.020932475 4286364028
0.3704266 -0.31238773 0.020951152 4286298235
0.36947432 -0.31143516 0.020953018 4286364028
0.36852208 -0.31048265 0.020954888 4286298235
0.38090152 -0.32286581 0.020930609 4286166649
0.38185376 -0.32381839 0.020928741 4286298235
0.36756977 -0.30953008 0.020956755 4286364028
0.38280603 -0.32477093 0.020926874 4286429821
0.3666175 -0.30857751 0.020958623 4286298235
0.38375828 -0.3257235 0.020925004 4286298235
0.38471055 -0.32667604 0.020923138 4286298235
0.36551753 -0.30765703 0.019960666 4286298235
0.36456347 -0.3067027 0.019962538 4286232442
0.3636094 -0.30574834 0.01996441 4286364028
0.38566285 -0.32762858 0.020921269 4286561407
0.3866151 -0.32858115 0.020919403 4286232442
0.36265531 -0.30479398 0.019966282 4286364028
0.36170125 -0.30383962 0.019968152 4286364028
0.35406956 -0.29047945 0.019985141 4286298235
0.35311565 -0.28857091 0.01998735 4286429821
0.35502347 -0.29238802 0.019982934 4286364028
0.35216171 -0.28666234 0.019989558 4286100856
0.35120779 -0.28475374 0.019991767 4286364028
0.35597742 -0.29429662 0.019980727 4286495614
0.35025385 -0.28284517 0.019993974 4286495614
0.35693133 -0.29620519 0.019978518 4286232442
0.34929991 -0.2809366 0.019996181 4286364028
0.34834599 -0.27902806 0.01999839 4286627200
0.35788524 -0.29811376 0.019976309 4286298235
0.34739208 -0.27711946 0.020000597 4286232442
0.34643814 -0.27521089 0.020002805 4286298235
0.35883921 -0.30002233 0.019974103 4286495614
0.34548423 -0.27330232 0.020005014 4286364028
0.34453031 -0.27139372 0.020007221 4286429821
0.36074719 -0.30288526 0.019970022 4286166649
0.38756734 -0.3295337 0.020917535 4286429821
0.38851961 -0.33048627 0.020915667 4286364028
0.35979313 -0.3019309 0.019971894 4286429821
0.34357637 -0.26948515 0.02000943 4286298235
0.34262261 -0.26662239 0.020011974 4286495614
0.40089992 -0.33715498 0.020893406 4286429821
0.40280461 -0.33810771 0.020890005 4286298235
0.39899525 -0.33620232 0.020896804 4286232442
0.40470931 -0.33906037 0.020886607 4286364028
0.40661398 -0.34001309 0.020883208 4286561407
0.39709058 -0.3352496 0.020900203 4286298235
0.40851864 -0.34096581 0.020879809 4286495614
0.41042331 -0.34191847 0.020876409 4286166649
0.39518592 -0.33429688 0.020903602 4286298235
0.41232798 -0.34287119 0.02087301 4286298235
0.41423264 -0.34382388 0.020869611 4286364028
0.39328125 -0.33334422 0.020907 4286298235
0.41613734 -0.34477657 0.020866213 4286232442
0.418042 -0.34572929 0.020862812 4286298235
0.39137655 -0.3323915 0.020910401 4286429821
0.4199467 -0.34668195 0.020859415 4286364028
0.42185137 -0.34763467 0.020856014 4286429821
0.38947189 -0.33143881 0.020913798 4286364028
0.42375603 -0.34858736 0.020852616 4286429821
0.34262246 -0.26757661 0.020011637 4286364028
0.42566073 -0.34954005 0.020849217 4286364028
0.3531155 -0.28952512 0.019987013 4286232442
0.35216159 -0.28761655 0.01998922 4286429821
0.35406941 -0.29143366 0.019984804 4286429821
0.35120764 -0.28570795 0.01999143 4286429821
0.3502537 -0.28379938 0.019993637 4286429821
0.35502332 -0.29334223 0.019982599 4286364028
0.34929979 -0.28189081 0.019995844 4286298235
0.35597727 -0.29525083 0.01998039 4286495614
0.34834585 -0.27998227 0.019998053 4286364028
0.34739193 -0.27807367 0.020000262 4286429821
0.35693118 -0.2971594 0.019978181 4286429821
0.34643802 -0.2761651 0.020002468 4286561407
0.34548408 -0.27425653 0.020004677 4286627200
0.35788509 -0.29906797 0.019975973 4286561407
0.34453017 -0.27234796 0.020006886 4286166649
0.34357625 -0.27043936 0.020009093 4286364028
0.35883906 -0.30097654 0.019973766 4286495614
0.34262231 -0.26853082 0.0200113 4286298235
0.40185219 -0.33810756 0.020891538 4286429821
0.40375689 -0.33906025 0.020888139 4286364028
0.39994752 -0.33715484 0.020894937 4286495614
0.40566155 -0.34001294 0.020884739 4286364028
0.40756622 -0.34096563 0.02088134 4286364028
0.39804286 -0.33620217 0.020898335 4286232442
0.40947089 -0.34191835 0.020877941 4286298235
0.41137558 -0.34287104 0.020874543 4286364028
0.39613819 -0.33524945 0.020901734 4286298235
0.41328025 -0.34382373 0.020871142 4286429821
0.41518494 -0.34477642 0.020867744 4286561407
0.39423352 -0.33429676 0.020905133 4286364028
0.41708961 -0.34572914 0.020864343 4286561407
0.41899428 -0.34668183 0.020860946 4286298235
0.39232883 -0.33334407 0.020908533 4286364028
0.42089894 -0.34763452 0.020857546 4286561407
0.42280361 -0.34858721 0.020854147 4286429821
0.39042413 -0.33239135 0.020911932 4286627200
0.42470831 -0.34953994 0.020850748 4286364028
0.37518775 -0.3181029 0.020941477 4286232442
0.37614003 -0.31905547 0.020939611 4286627200
0.37423551 -0.31715035 0.020943346 4286364028
0.3770923 -0.32000804 0.020937743 4286429821
0.37328324 -0.31619781 0.020945214 4286364028
0.37804455 -0.32096058 0.020935876 4286364028
0.37233096 -0.31524524 0.020947082 4286429821
0.37899682 -0.32191312 0.020934006 4286364028
0.37137869 -0.3142927 0.020948948 4286166649
0.37994909 -0.32286566 0.02093214 4286298235
0.37042645 -0.31334013 0.020950815 4286364028
0.38090137 -0.32381824 0.020930272 4286429821
0.38185361 -0.32477081 0.020928405 4286298235
0.36947417 -0.31238759 0.020952683 4286166649
0.38280588 -0.32572335 0.020926537 4286561407
0.36852193 -0.31143504 0.020954551 4286232442
0.36756966 -0.3104825 0.020956419 4286429821
0.36661735 -0.30952993 0.020958286 4286561407
0.38375813 -0.32667592 0.020924669 4286298235
0.38471043 -0.32762843 0.020922801 4286561407
0.36551738 -0.30861124 0.019960329 4286429821
0.36456332 -0.30765691 0.019962201 4286495614
0.36360925 -0.30670255 0.019964073 4286166649
0.3856627 -0.32858101 0.020920934 4286495614
0.36265519 -0.30574819 0.019965945 4286298235
0.38661495 -0.32953358 0.020919066 4286429821
0.3617011 -0.30479383 0.019967815 4286298235
0.38756719 -0.33048612 0.0209172 4286495614
0.36074704 -0.30383947 0.019969687 4286364028
0.38851947 -0.33143869 0.020915329 4286429821
0.35979298 -0.30288512 0.019971557 4286364028
0.35311535 -0.29047933 0.019986676 4286298235
0.35216144 -0.28857076 0.019988885 4286429821
0.35406926 -0.29238787 0.019984467 4286364028
0.35120749 -0.28666216 0.019991092 4286232442
0.35025355 -0.28475359 0.0199933 4286429821
0.35502321 -0.29429644 0.019982262 4286298235
0.34929964 -0.28284502 0.019995509 4286495614
0.35597712 -0.29620504 0.019980052 4286298235
0.3483457 -0.28093648 0.019997716 4286429821
0.34739178 -0.27902788 0.019999925 4286364028
0.35693103 -0.29811361 0.019977843 4286298235
0.34643787 -0.27711931 0.02000213 4286166649
0.34548393 -0.27521074 0.02000434 4286298235
0.35788497 -0.30002218 0.019975636 4286364028
0.34453002 -0.27330217 0.020006549 4286298235
0.3435761 -0.2713936 0.020008756 4286298235
0.35883892 -0.30193079 0.019973429 4286429821
0.34262216 -0.26948503 0.020010963 4286298235
0.40089977 -0.33810741 0.020893069 4286232442
0.40280449 -0.3390601 0.02088967 4286495614
0.3989951 -0.33715472 0.020896468 4286232442
0.40470916 -0.34001279 0.02088627 4286298235
0.40661383 -0.34096551 0.020882873 4286495614
0.39709044 -0.33620203 0.020899868 4286232442
0.40851849 -0.3419182 0.020879472 4286232442
0.41042316 -0.34287089 0.020876074 4286561407
0.39518577 -0.3352493 0.020903265 4286166649
0.41232783 -0.34382358 0.020872673 4286298235
0.41423252 -0.3447763 0.020869276 4286166649
0.3932811 -0.33429664 0.020906664 4286495614
0.41613719 -0.34572899 0.020865876 4286100856
0.41804186 -0.34668168 0.020862477 4286298235
0.39137644 -0.33334392 0.020910064 4286429821
0.41994655 -0.34763438 0.020859078 4286429821
0.42185122 -0.34858707 0.020855678 4286364028
0.38947174 -0.3323912 0.020913463 4286495614
0.42375591 -0.34953979 0.020852279 4286364028
0.35216129 -0.28952497 0.019988548 4286364028
0.35120738 -0.2876164 0.019990755 4286232442
0.3531152 -0.29143354 0.019986339 4286298235
0.3502534 -0.2857078 0.019992962 4286429821
0.34929949 -0.28379923 0.019995172 4286364028
0.35406911 -0.29334208 0.019984132 4286429821
0.34834558 -0.28189069 0.019997379 4286298235
0.35502306 -0.29525068 0.019981924 4286232442
0.34739164 -0.27998212 0.019999588 4286495614
0.34643772 -0.27807352 0.020001795 4286298235
0.35597697 -0.29715925 0.019979715 4286364028
0.34548381 -0.27616495 0.020004002 4286495614
0.34452987 -0.27425638 0.020006211 4286495614
0.35693088 -0.29906783 0.019977508 4286429821
0.34357595 -0.27234781 0.020008421 4286495614
0.34262204 -0.27043924 0.020010626 4286298235
0.35788482 -0.3009764 0.019975299 4286298235
0.40185207 -0.33905995 0.020891203 4286429821
0.40375674 -0.34001267 0.020887801 4286429821
0.39994738 -0.33810726 0.0208946 4286429821
0.4056614 -0.34096533 0.020884404 4286364028
0.40756607 -0.34191805 0.020881003 4286495614
0.39804271 -0.33715457 0.020897999 4286429821
0.40947074 -0.34287077 0.020877605 4286298235
0.41137543 -0.34382343 0.020874206 4286298235
0.39613804 -0.33620188 0.020901399 4286232442
0.41328013 -0.34477615 0.020870807 4286364028
0.4151848 -0.34572884 0.020867407 4286495614
0.39423338 -0.33524919 0.020904796 4286364028
0.41708946 -0.34668154 0.020864008 4286364028
0.41899413 -0.34763426 0.020860609 4286232442
0.39232868 -0.33429646 0.020908197 4286232442
0.4208988 -0.34858692 0.020857211 4286495614
0.42280349 -0.34953964 0.02085381 4286364028
0.39042401 -0.33334377 0.020911595 4286298235
0.37233084 -0.31619766 0.020946745 4286429821
0.37328309 -0.31715024 0.020944878 4286364028
0.37423536 -0.31810275 0.020943008 4286298235
0.37137854 -0.31524509 0.020948613 4286429821
0.3704263 -0.31429255 0.020950479 4286561407
0.37518761 -0.31905532 0.020941142 4286561407
0.37613988 -0.32000786 0.020939274 4286429821
0.36947402 -0.31333998 0.020952346 4286429821
0.37709215 -0.32096043 0.020937407 4286232442
0.37804443 -0.321913 0.020935539 4286495614
0.36852178 -0.31238747 0.020954216 4286364028
0.37899667 -0.32286552 0.020933671 4286495614
0.36756951 -0.31143489 0.020956082 4286232442
0.37994894 -0.32381809 0.020931803 4286495614
0.38090122 -0.32477063 0.020929936 4286561407
0.36661723 -0.31048235 0.020957951 4286100856
0.36551723 -0.30956548 0.019959994 4286561407
0.38185346 -0.3257232 0.020928068 4286364028
0.36456317 -0.30861112 0.019961864 4286495614
0.38280573 -0.32667577 0.020926202 4286364028
0.36360911 -0.30765676 0.019963736 4286495614
0.38375801 -0.32762831 0.020924332 4286495614
0.38471028 -0.32858086 0.020922465 4286364028
0.36265504 -0.30670241 0.019965608 4286692993
0.36170098 -0.30574805 0.019967478 4286232442
0.38566256 -0.3295334 0.020920597 4286495614
0.36074689 -0.30479369 0.01996935 4286495614
0.3866148 -0.33048597 0.020918731 4286298235
0.35979283 -0.30383933 0.019971222 4286429821
0.38756704 -0.33143854 0.020916862 4286364028
0.35883877 -0.302885 0.019973092 4286364028
0.38851932 -0.33239108 0.020914994 4286298235
0.35216114 -0.29047918 0.019988211 4286166649
0.35120723 -0.28857061 0.01999042 4286429821
0.35311505 -0.29238775 0.019986002 4286364028
0.35025325 -0.28666204 0.019992625 4286429821
0.34929934 -0.28475344 0.019994834 4286429821
0.35406899 -0.29429632 0.019983795 4286232442
0.34834543 -0.2828449 0.019997044 4286364028
0.35502291 -0.29620489 0.019981587 4286364028
0.34739149 -0.28093633 0.019999251 4286364028
0.34643757 -0.27902776 0.020001458 4286561407
0.35597682 -0.29811347 0.019979378 4286298235
0.34548366 -0.27711916 0.020003665 4286166649
0.34452972 -0.27521059 0.020005874 4286429821
0.35693076 -0.30002204 0.019977171 4286561407
0.34357581 -0.27330202 0.020008083 4286232442
0.34262189 -0.27139348 0.020010289 4286364028
0.35788468 -0.30193061 0.019974962 4286429821
0.40089965 -0.3390598 0.020892734 4286035063
0.40280434 -0.34001252 0.020889333 4286298235
0.39899495 -0.33810714 0.020896131 4286561407
0.40470901 -0.34096521 0.020885935 4286298235
0.40661368 -0.3419179 0.020882536 4286495614
0.39709029 -0.33715442 0.020899532 4286364028
0.40851834 -0.34287062 0.020879136 4286100856
0.41042301 -0.34382328 0.020875737 4286298235
0.39518562 -0.33620173 0.02090293 4286561407
0.41232771 -0.344776 0.020872338 4286232442
0.41423237 -0.34572873 0.020868938 4286232442
0.39328095 -0.33524904 0.020906327 4286364028
0.41613704 -0.34668139 0.020865541 4286166649
0.41804171 -0.34763411 0.02086214 4286232442
0.39137629 -0.33429635 0.020909728 4286429821
0.4199464 -0.34858677 0.020858742 4286232442
0.4218511 -0.34953949 0.020855341 4286166649
0.38947162 -0.33334363 0.020913126 4286166649
0.3723307 -0.31715009 0.02094641 4286298235
0.37328294 -0.31810263 0.020944541 4286495614
0.37137842 -0.31619751 0.020948276 4286429821
0.37423521 -0.31905517 0.020942673 4286232442
0.37042615 -0.31524494 0.020950144 4286232442
0.37518746 -0.32000774 0.020940805 4286364028
0.37613973 -0.32096028 0.020938938 4286298235
0.36947387 -0.3142924 0.020952011 4286232442
0.37709203 -0.32191285 0.02093707 4286364028
0.37804428 -0.3228654 0.020935204 4286364028
0.36852163 -0.31333986 0.020953879 4286495614
0.37899652 -0.32381794 0.020933334 4286298235
0.36756936 -0.31238732 0.020955747 4286429821
0.37994879 -0.32477051 0.020931467 4286495614
0.38090107 -0.32572305 0.020929599 4286298235
0.36661708 -0.31143475 0.020957613 4286429821
0.36566484 -0.3104822 0.020959482 4286429821
0.38185331 -0.32667562 0.020927733 4286429821
0.36456302 -0.30956537 0.019961528 4286166649
0.38280562 -0.32762817 0.020925865 4286364028
0.36360896 -0.30861098 0.019963399 4286429821
0.38375786 -0.32858074 0.020923996 4286561407
0.38471013 -0.32953328 0.020922128 4286495614
0.36265489 -0.30765662 0.019965271 4286298235
0.36170083 -0.30670226 0.019967141 4286429821
0.38566241 -0.33048582 0.020920262 4286298235
0.36074677 -0.3057479 0.019969013 4286364028
0.38661465 -0.33143839 0.020918394 4286232442
0.35979268 -0.30479354 0.019970885 4286364028
0.38756689 -0.33239093 0.020916527 4286166649
0.35883862 -0.30383921 0.019972757 4286429821
0.39994726 -0.33905965 0.020894265 4286429821
0.40185192 -0.34001237 0.020890865 4286364028
0.39804256 -0.33810699 0.020897662 4286429821
0.40375659 -0.34096509 0.020887466 4286561407
0.40566126 -0.34191775 0.020884067 4286298235
0.39613789 -0.33715427 0.020901063 4286298235
0.40756592 -0.34287047 0.020880667 4286035063
0.40947059 -0.34382316 0.020877268 4286232442
0.39423323 -0.33620161 0.020904461 4286364028
0.41137531 -0.34477586 0.020873871 4286232442
0.41327998 -0.34572858 0.02087047 4286429821
0.39232853 -0.33524889 0.02090786 4286232442
0.41518465 -0.34668124 0.020867072 4286298235
0.41708931 -0.34763396 0.020863671 4286232442
0.39042386 -0.33429617 0.02091126 4286364028
0.41899398 -0.34858665 0.020860273 4286429821
0.42089868 -0.34953934 0.020856874 4286429821
0.3885192 -0.33334351 0.020914657 4286495614
0.35216099 -0.29143339 0.019987874 4286232442
0.35120708 -0.28952482 0.019990083 4286627200
0.3531149 -0.29334196 0.019985666 4286429821
0.35025313 -0.28761625 0.019992288 4286364028
0.34929919 -0.28570765 0.019994497 4286232442
0.35406885 -0.29525054 0.019983457 4286495614
0.34834528 -0.28379911 0.019996706 4286364028
0.35502276 -0.29715911 0.01998125 4286232442
0.34739137 -0.28189054 0.019998914 4286429821
0.34643742 -0.27998197 0.020001121 4286298235
0.35597667 -0.29906768 0.019979043 4286364028
0.34548351 -0.27807337 0.02000333 4286429821
0.3445296 -0.2761648 0.020005537 4286495614
0.35693061 -0.30097625 0.019976834 4286364028
0.34357566 -0.27425623 0.020007746 4286364028
0.34262174 -0.27234769 0.020009954 4286495614
0.35788453 -0.30288485 0.019974625 4286364028
0.35120693 -0.29047903 0.019989746 4286495614
0.35025299 -0.28857046 0.019991953 4286364028
0.35216084 -0.2923876 0.019987537 4286495614
0.34929904 -0.28666186 0.01999416 4286364028
0.34834513 -0.28475332 0.019996369 4286495614
0.35311478 -0.29429621 0.019985329 4286232442
0.34739122 -0.28284475 0.019998578 4286166649
0.3540687 -0.29620475 0.01998312 4286495614
0.34643728 -0.28093618 0.020000784 4286627200
0.34548336 -0.27902758 0.020002993 4286035063
0.35502261 -0.29811332 0.019980913 4286298235
0.34452945 -0.27711901 0.0200052 4286561407
0.34357551 -0.27521044 0.020007409 4286232442
0.35597655 -0.30002189 0.019978706 4286364028
0.34262159 -0.2733019 0.020009616 4286561407
0.35693046 -0.30193049 0.019976497 4286232442
0.4008995 -0.34001222 0.020892397 4286561407
0.4028042 -0.34096491 0.020888997 4286429821
0.39899483 -0.33905953 0.020895796 4286429821
0.40470886 -0.3419176 0.020885598 4286429821
0.40661353 -0.34287032 0.0208822 4286429821
0.39709014 -0.33810684 0.020899195 4286364028
0.4085182 -0.34382302 0.020878799 4286364028
0.41042289 -0.34477571 0.020875402 4286561407
0.39518547 -0.33715412 0.020902595 4286232442
0.41232756 -0.34572843 0.020872001 4286232442
0.41423222 -0.34668112 0.020868603 4286364028
0.3932808 -0.33620146 0.020905992 4286495614
0.41613689 -0.34763381 0.020865204 4286495614
0.41804156 -0.3485865 0.020861804 4286166649
0.39137614 -0.33524874 0.020909391 4286232442
0.41994628 -0.34953919 0.020858405 4286429821
0.38947147 -0.33429605 0.020912791 4286429821
0.37423506 -0.32000756 0.020942336 4286364028
0.37518731 -0.32096013 0.02094047 4286429821
0.37613961 -0.32191271 0.020938601 4286232442
0.37328279 -0.31905505 0.020944206 4285508719
0.37709188 -0.32286525 0.020936735 4286364028
0.37233055 -0.31810248 0.020946072 4286429821
0.37137827 -0.31714994 0.020947941 4286495614
0.37042603 -0.31619737 0.020949807 4286166649
0.37804413 -0.32381782 0.020934867 4285574512
0.36947373 -0.31524479 0.020951675 4286298235
0.37899637 -0.32477033 0.020932999 4286429821
0.36852148 -0.31429228 0.020953543 4286561407
0.36756921 -0.31333971 0.02095541 4286429821
0.37994865 -0.3257229 0.02093113 4286232442
0.38090092 -0.32667547 0.020929264 4286495614
0.36661693 -0.31238717 0.020957278 4286495614
0.36566469 -0.3114346 0.020959144 4286364028
0.38185319 -0.32762802 0.020927396 4286429821
0.36456287 -0.31051958 0.019961191 4286364028
0.38280547 -0.32858059 0.020925529 4286429821
0.36360881 -0.30956519 0.019963063 4286495614
0.36265475 -0.30861083 0.019964933 4286232442
0.36170068 -0.30765647 0.019966803 4286627200
0.38375771 -0.32953316 0.020923659 4286298235
0.38470998 -0.33048567 0.020921793 4286495614
0.36074662 -0.30670211 0.019968675 4286298235
0.38566226 -0.33143824 0.020919925 4286298235
0.35979256 -0.30574775 0.019970547 4286364028
0.3866145 -0.33239079 0.020918058 4286364028
0.38756678 -0.33334336 0.02091619 4286035063
0.35883847 -0.30479342 0.019972419 4286298235
0.35788438 -0.30383906 0.019974289 4286232442
0.39994711 -0.34001207 0.020893928 4286166649
0.40185177 -0.34096479 0.02089053 4286298235
0.39804244 -0.33905938 0.020897327 4286364028
0.40375644 -0.34191748 0.020887129 4286100856
0.40566111 -0.34287018 0.020883732 4286232442
0.39613774 -0.33810669 0.020900726 4286429821
0.40756577 -0.34382287 0.02088033 4286561407
0.40947047 -0.34477559 0.020876933 4286429821
0.39423308 -0.337154 0.020904126 4286364028
0.41137516 -0.34572828 0.020873534 4286561407
0.41327983 -0.34668097 0.020870134 4286429821
0.39232838 -0.33620131 0.020907525 4286429821
0.4151845 -0.34763366 0.020866735 4286298235
0.41708916 -0.34858635 0.020863336 4286495614
0.39042372 -0.33524859 0.020910922 4286429821
0.41899386 -0.34953907 0.020859936 4286298235
0.38851905 -0.33429593 0.020914322 4286232442
0.35120678 -0.29143324 0.019989409 4286495614
0.35025284 -0.28952467 0.019991616 4286561407
0.35216069 -0.29334182 0.019987201 4286429821
0.34929892 -0.2876161 0.019993823 4286429821
0.34834498 -0.28570753 0.019996032 4286364028
0.35311463 -0.29525042 0.019984992 4286495614
0.34739107 -0.28379896 0.019998241 4286429821
0.35406855 -0.29715896 0.019982783 4286100856
0.34643716 -0.28189039 0.020000447 4286298235
0.34548321 -0.27998182 0.020002656 4286364028
0.35502246 -0.29906753 0.019980578 4286364028
0.3445293 -0.27807322 0.020004865 4286692993
0.34357539 -0.27616465 0.020007072 4286364028
0.3559764 -0.3009761 0.019978369 4286166649
0.34262145 -0.27425611 0.020009279 4286364028
0.35693032 -0.3028847 0.01997616 4286627200
0.37137812 -0.31810233 0.020947604 4286364028
0.3723304 -0.3190549 0.020945737 4286364028
0.37042588 -0.31714979 0.020949472 4286364028
0.37328264 -0.32000744 0.020943869 4286364028
0.36947361 -0.31619722 0.020951338 4286692993
0.37423491 -0.32095999 0.020942001 4286364028
0.37518719 -0.32191256 0.020940132 4286364028
0.36852133 -0.31524467 0.020953208 4286627200
0.37613946 -0.3228651 0.020938266 4286429821
0.37709174 -0.32381767 0.020936398 4286166649
0.36756906 -0.31429213 0.020955075 4286429821
0.36661679 -0.31333956 0.020956941 4286429821
0.36566454 -0.31238702 0.020958809 4286561407
0.37804398 -0.32477021 0.020934531 4286232442
0.37899622 -0.32572275 0.020932661 4286298235
0.36456275 -0.31147379 0.019960854 4286495614
0.3799485 -0.32667533 0.020930795 4286495614
0.3809008 -0.32762787 0.020928927 4286627200
0.36360866 -0.31051943 0.019962726 4286429821
0.3626546 -0.30956507 0.019964598 4286495614
0.38185304 -0.32858044 0.02092706 4286429821
0.36170053 -0.30861068 0.019966466 4286364028
0.36074647 -0.30765632 0.019968338 4286298235
0.38280532 -0.32953298 0.020925192 4286495614
0.35979241 -0.30670196 0.01997021 4286364028
0.38375756 -0.33048555 0.020923324 4286429821
0.38470984 -0.33143809 0.020921456 4286364028
0.38566211 -0.33239064 0.020919589 4286232442
0.35883835 -0.30574763 0.019972082 4286429821
0.38661438 -0.33334321 0.020917721 4286232442
0.35788423 -0.30479327 0.019973952 4286495614
0.40089935 -0.34096462 0.020892061 4286429821
0.40280405 -0.34191734 0.02088866 4286364028
0.39899468 -0.34001195 0.020895459 4286429821
0.40470871 -0.34287003 0.020885263 4286232442
0.40661338 -0.34382272 0.020881863 4286495614
0.39709002 -0.33905923 0.02089886 4286232442
0.40851808 -0.34477544 0.020878464 4286429821
0.41042274 -0.34572813 0.020875065 4286692993
0.39518532 -0.33810654 0.020902257 4286298235
0.41232741 -0.34668082 0.020871665 4286495614
0.41423208 -0.34763354 0.020868266 4286364028
0.39328066 -0.33715385 0.020905657 4286364028
0.41613674 -0.3485862 0.020864869 4286232442
0.41804144 -0.34953892 0.020861467 4286561407
0.39137599 -0.33620116 0.020909056 4286495614
0.38947132 -0.33524844 0.020912454 4286364028
0.35025269 -0.29047889 0.019991279 4286232442
0.34929878 -0.28857031 0.019993488 4286298235
0.35120663 -0.29238746 0.019989071 4286364028
0.34834483 -0.28666174 0.019995695 4286166649
0.34739092 -0.28475317 0.019997904 4286298235
0.35216057 -0.29429603 0.019986864 4286364028
0.34643701 -0.2828446 0.020000111 4286429821
0.35311449 -0.29620463 0.019984655 4286166649
0.34548306 -0.28093603 0.020002319 4286364028
0.34452915 -0.27902746 0.020004528 4286429821
0.3540684 -0.29811317 0.019982446 4286364028
0.34357524 -0.27711886 0.020006735 4286627200
0.3426213 -0.27521032 0.020008942 4286232442
0.35502234 -0.30002174 0.019980241 4286429821
0.35597625 -0.30193031 0.019978032 4286364028
0.38756663 -0.33429575 0.020915855 4286232442
0.35693017 -0.30383891 0.019975824 4286364028
0.39994696 -0.3409645 0.020893592 4286429821
0.40185162 -0.34191719 0.020890193 4286298235
0.39804229 -0.34001181 0.02089699 4286166649
0.40375629 -0.34286991 0.020886794 4286495614
0.40566096 -0.34382257 0.020883394 4286298235
0.39613762 -0.33905908 0.020900391 4286364028
0.40756565 -0.34477529 0.020879995 4286364028
0.40947032 -0.34572801 0.020876596 4286429821
0.39423293 -0.33810642 0.020903789 4286627200
0.41137502 -0.34668067 0.020873198 4286298235
0.41327968 -0.34763339 0.020869797 4286166649
0.39232823 -0.3371537 0.02090719 4286364028
0.41518435 -0.34858605 0.0208664 4286232442
0.41708905 -0.34953877 0.020862998 4286298235
0.39042357 -0.33620101 0.020910587 4286429821
0.3885189 -0.33524832 0.020913985 4286298235
0.35025254 -0.2914331 0.019990942 4286166649
0.34929863 -0.28952453 0.019993151 4286364028
0.35120648 -0.29334167 0.019988736 4286364028
0.34834471 -0.28761598 0.019995358 4286232442
0.34739077 -0.28570738 0.019997567 4286298235
0.35216042 -0.29525027 0.019986527 4286429821
0.34643686 -0.28379881 0.019999774 4286364028
0.35311434 -0.29715884 0.019984318 4286561407
0.34548295 -0.28189024 0.020001981 4286298235
0.344529 -0.27998167 0.020004191 4286364028
0.35406825 -0.29906738 0.019982111 4286495614
0.34357509 -0.27807307 0.0200064 4286100856
0.34262118 -0.27616453 0.020008605 4286298235
0.35502219 -0.30097595 0.019979903 4286232442
0.3559761 -0.30288455 0.019977694 4286298235
0.37137797 -0.31905475 0.020947268 4286364028
0.37233025 -0.32000732 0.0209454 4286429821
0.37042573 -0.31810218 0.020949135 4286298235
0.37328249 -0.32095987 0.020943534 4286298235
0.3742348 -0.32191241 0.020941664 4286364028
0.36947346 -0.31714964 0.020951003 4286429821
0.37518704 -0.32286495 0.020939797 4286232442
0.36852121 -0.3161971 0.020952871 4286495614
0.37613931 -0.32381752 0.020937929 4286429821
0.37709159 -0.32477009 0.020936063 4286364028
0.36756891 -0.31524453 0.020954739 4286232442
0.36661664 -0.31429198 0.020956606 4286298235
0.37804383 -0.32572263 0.020934194 4286364028
0.36566439 -0.31333941 0.020958472 4286298235
0.37899607 -0.32667518 0.020932326 4286495614
0.3645626 -0.312428 0.019960517 4286495614
0.36360854 -0.31147364 0.019962389 4286298235
0.36265445 -0.31051928 0.019964261 4286429821
0.37994838 -0.32762772 0.020930458 4286429821
0.38090065 -0.32858029 0.020928591 4286364028
0.36170039 -0.30956489 0.019966131 4286364028
0.3818529 -0.32953286 0.020926723 4286232442
0.36074632 -0.30861053 0.019968001 4286364028
0.38280517 -0.3304854 0.020924857 4286298235
0.38375741 -0.33143798 0.020922987 4286232442
0.35979226 -0.30765617 0.019969873 4286561407
0.38470969 -0.33239049 0.02092112 4286429821
0.38566199 -0.33334306 0.020919252 4286561407
0.3588382 -0.30670184 0.019971745 4286166649
0.35788411 -0.30574748 0.019973615 4286495614
0.38661423 -0.33429563 0.020917386 4286364028
0.35693002 -0.30479312 0.019975487 4286166649
0.39899454 -0.34096438 0.020895123 4286232442
0.4008992 -0.34191704 0.020891724 4286495614
0.39708987 -0.34001166 0.020898523 4286298235
0.4028039 -0.34286976 0.020888325 4286429821
0.40470856 -0.34382242 0.020884925 4286364028
0.3951852 -0.33905894 0.020901922 4286166649
0.40661326 -0.34477514 0.020881528 4286232442
0.40851793 -0.34572786 0.020878127 4286298235
0.39328051 -0.33810627 0.02090532 4286495614
0.41042259 -0.34668052 0.020874729 4286364028
0.41232726 -0.34763324 0.020871328 4286561407
0.39137584 -0.33715355 0.020908721 4286298235
0.41423193 -0.34858593 0.020867931 4286495614
0.41613662 -0.34953862 0.020864531 4286495614
0.38947117 -0.33620086 0.020912118 4286561407
0.38756648 -0.33524817 0.020915518 4286495614
0.35025239 -0.29238731 0.019990604 4286364028
0.34929848 -0.29047874 0.019992813 4286561407
0.35120636 -0.29429591 0.019988399 4286298235
0.34834456 -0.2885702 0.019995023 4286298235
0.34739062 -0.28666162 0.01999723 4286429821
0.35216027 -0.29620448 0.01998619 4286232442
0.34643671 -0.28475302 0.019999437 4286232442
0.35311419 -0.29811305 0.019983981 4286364028
0.3454828 -0.28284445 0.020001646 4286298235
0.34452885 -0.28093588 0.020003853 4286364028
0.35406813 -0.30002159 0.019981774 4286298235
0.34357494 -0.27902728 0.020006062 4286429821
0.34262103 -0.27711874 0.020008268 4286429821
0.35502204 -0.30193019 0.019979566 4286232442
0.35597596 -0.30383876 0.019977359 4286232442
0.34929833 -0.29143295 0.019992476 4286232442
0.34834442 -0.28952441 0.019994685 4286364028
0.35025224 -0.29334152 0.019990269 4286298235
0.3473905 -0.28761584 0.019996893 4286364028
0.34643656 -0.28570724 0.0199991 4286166649
0.35120621 -0.29525012 0.019988062 4286298235
0.34548265 -0.28379866 0.020001309 4286298235
0.35216013 -0.29715869 0.019985853 4286298235
0.34452873 -0.28189009 0.020003516 4286429821
0.34357479 -0.27998152 0.020005725 4286429821
0.35311404 -0.29906726 0.019983646 4286232442
0.34262088 -0.27807295 0.020007933 4286364028
0.35406798 -0.3009758 0.019981436 4286298235
0.35502189 -0.3028844 0.019979229 4286364028
0.39994681 -0.34191689 0.020893255 4286495614
0.40185148 -0.34286961 0.020889858 4286429821
0.39804214 -0.3409642 0.020896655 4286561407
0.40375614 -0.3438223 0.020886457 4286232442
0.40566084 -0.34477499 0.020883059 4286429821
0.39613748 -0.34001151 0.020900054 4286429821
0.4075655 -0.34572771 0.020879658 4286429821
0.40947017 -0.3466804 0.02087626 4286429821
0.39423281 -0.33905882 0.020903453 4286232442
0.41137487 -0.34763309 0.020872861 4286298235
0.41327953 -0.34858578 0.020869462 4286298235
0.39232808 -0.33810613 0.020906853 4286429821
0.41518423 -0.34953848 0.020866062 4286232442
0.39042342 -0.3371534 0.020910252 4286429821
0.38851875 -0.33620074 0.020913649 4286429821
0.37137783 -0.32000715 0.020946931 4286429821
0.3723301 -0.32095972 0.020945065 4286429821
0.37042558 -0.3190546 0.020948799 4286298235
0.37328237 -0.32191229 0.020943196 4286364028
0.37423465 -0.3228648 0.020941328 4286364028
0.36947331 -0.31810203 0.020950666 4286429821
0.37518689 -0.32381737 0.02093946 4286495614
0.36852106 -0.31714952 0.020952536 4285903477
0.37613916 -0.32476991 0.020937594 4286429821
0.36756879 -0.31619695 0.020954402 4286232442
0.37709144 -0.32572249 0.020935725 4286627200
0.36661649 -0.31524438 0.02095627 4286298235
0.37804368 -0.32667506 0.020933859 4286429821
0.36566424 -0.31429183 0.020958137 4286495614
0.37899595 -0.32762757 0.020931989 4286232442
0.36456245 -0.31338221 0.01996018 4286232442
0.37994823 -0.32858014 0.020930123 4286232442
0.3809005 -0.32953268 0.020928254 4286100856
0.36360839 -0.31242785 0.019962052 4286364028
0.36265433 -0.31147349 0.019963924 4286298235
0.38185275 -0.33048525 0.020926388 4286627200
0.36170024 -0.31051913 0.019965794 4286232442
0.36074618 -0.30956477 0.019967666 4286298235
0.38280502 -0.33143783 0.02092452 4286298235
0.35979211 -0.30861038 0.019969536 4286298235
0.38375726 -0.33239037 0.020922652 4286364028
0.35883805 -0.30765605 0.019971408 4286561407
0.35788396 -0.30670169 0.019973278 4286298235
0.38470957 -0.33334291 0.020920783 4286495614
0.3569299 -0.30574733 0.01997515 4286298235
0.38566184 -0.33429545 0.020918917 4286232442
0.38661408 -0.33524802 0.020917049 4286429821
0.35597581 -0.30479297 0.019977022 4286364028
0.34929818 -0.29238716 0.019992139 4286429821
0.34834427 -0.29047862 0.019994348 4286232442
0.35025212 -0.29429573 0.019989932 4286166649
0.34739035 -0.28857005 0.019996557 4286232442
0.34643641 -0.28666145 0.019998763 4286166649
0.35120606 -0.29620433 0.019987725 4286298235
0.3454825 -0.28475288 0.020000972 4286429821
0.35215998 -0.2981129 0.019985516 4286364028
0.34452859 -0.28284431 0.020003181 4286429821
0.34357464 -0.28093573 0.020005388 4286035063
0.35311392 -0.30002147 0.019983308 4286298235
0.34262073 -0.27902716 0.020007595 4286298235
0.35406783 -0.30193001 0.019981099 4286364028
0.35502174 -0.30383861 0.019978894 4286429821
0.39899439 -0.34191677 0.020894786 4286429821
0.40089905 -0.34286946 0.020891389 4286495614
0.39708972 -0.34096408 0.020898188 4286166649
0.40280375 -0.34382215 0.020887988 4286364028
0.40470845 -0.34477484 0.02088459 4286495614
0.39518505 -0.34001136 0.020901585 4286298235
0.40661311 -0.34572756 0.020881191 4286495614
0.40851778 -0.34668025 0.020877792 4286364028
0.39328039 -0.33905867 0.020904984 4286364028
0.41042244 -0.34763294 0.020874392 4286364028
0.41232711 -0.34858564 0.020870993 4286429821
0.39137569 -0.33810598 0.020908384 4286298235
0.41423181 -0.34953836 0.020867594 4286364028
0.38947102 -0.33715326 0.020911783 4286495614
0.38756633 -0.33620059 0.020915182 4286429821
0.37232998 -0.32191214 0.020944728 4286166649
0.37137768 -0.32095957 0.020946596 4286298235
0.37328222 -0.32286468 0.020942861 4286429821
0.37042543 -0.32000703 0.020948462 4286298235
0.3742345 -0.32381722 0.020940991 4286166649
0.36947316 -0.31905445 0.02095033 4286100856
0.37518674 -0.32476979 0.020939125 4286364028
0.36852092 -0.31810191 0.020952199 4286100856
0.37613901 -0.32572234 0.020937257 4286429821
0.36756864 -0.31714937 0.020954067 4286364028
0.37709129 -0.32667491 0.02093539 4286232442
0.36661637 -0.3161968 0.020955933 4286429821
0.37804356 -0.32762745 0.020933522 4286429821
0.36566409 -0.31524423 0.020957801 4286298235
0.37899581 -0.32857999 0.020931654 4286561407
0.3645623 -0.31433642 0.019959843 4286364028
0.37994808 -0.32953256 0.020929785 4286232442
0.38090035 -0.33048511 0.020927919 4286166649
0.36360824 -0.31338206 0.019961715 4286166649
0.36265418 -0.3124277 0.019963587 4286429821
0.3818526 -0.33143768 0.020926051 4286232442
0.36170012 -0.31147334 0.019965457 4286429821
0.36074603 -0.31051898 0.019967329 4286495614
0.38280487 -0.33239022 0.020924184 4286364028
0.38375714 -0.33334279 0.020922314 4286298235
0.35979196 -0.30956459 0.019969201 4286166649
0.3588379 -0.30861026 0.019971071 4286561407
0.35788381 -0.3076559 0.019972941 4286298235
0.38470942 -0.33429533 0.020920448 4286100856
0.38566169 -0.33524787 0.02091858 4286364028
0.35692975 -0.30670154 0.019974813 4286166649
0.35597569 -0.30574718 0.019976685 4286166649
0.34834412 -0.29143283 0.019994011 4286364028
0.3473902 -0.28952426 0.01999622 4286298235
0.34929803 -0.29334137 0.019991804 4286232442
0.34643629 -0.28761569 0.019998426 4286298235
0.34548235 -0.28570709 0.020000635 4286298235
0.35025197 -0.29524997 0.019989595 4286495614
0.34452844 -0.28379852 0.020002844 4286364028
0.35120592 -0.29715854 0.019987388 4286429821
0.34357452 -0.28188995 0.020005051 4286364028
0.34262058 -0.2799814 0.020007258 4286166649
0.35215983 -0.29906711 0.01998518 4286232442
0.35311377 -0.30097568 0.019982971 4286298235
0.35406768 -0.30288425 0.019980762 4286495614
0.39994666 -0.34286931 0.02089292 4286429821
0.40185133 -0.343822 0.020889521 4286166649
0.39804199 -0.34191662 0.020896317 4286364028
0.40375602 -0.34477472 0.020886121 4286298235
0.40566069 -0.34572741 0.020882722 4286166649
0.39613733 -0.3409639 0.020899719 4286429821
0.40756536 -0.3466801 0.020879323 4286232442
0.40947002 -0.34763283 0.020875923 4286364028
0.39423266 -0.34001124 0.020903116 4286364028
0.41137472 -0.34858549 0.020872526 4286495614
0.41327941 -0.34953821 0.020869125 4286232442
0.39232796 -0.33905852 0.020906517 4286429821
0.39042327 -0.33810583 0.020909915 4286298235
0.3885186 -0.33715314 0.020913314 4286561407
0.3550216 -0.30479282 0.019978557 4286166649
0.38661394 -0.33620045 0.020916713 4286364028
0.39899424 -0.34286919 0.020894451 4286495614
0.4008989 -0.34382185 0.020891052 4286298235
0.39708957 -0.34191647 0.02089785 4286364028
0.40280363 -0.34477457 0.020887652 4286429821
0.4047083 -0.34572726 0.020884253 4286298235
0.3951849 -0.34096378 0.02090125 4286495614
0.40661296 -0.34667996 0.020880856 4286298235
0.40851763 -0.34763268 0.020877454 4286035063
0.39328024 -0.34001109 0.020904647 4286364028
0.4104223 -0.34858534 0.020874057 4286495614
0.41232699 -0.34953806 0.020870656 4286100856
0.39137557 -0.33905837 0.020908048 4286298235
0.38947088 -0.33810568 0.020911446 4286364028
0.38756618 -0.33715299 0.020914847 4286429821
0.34834397 -0.29238704 0.019993674 4286429821
0.34739006 -0.29047847 0.019995883 4286429821
0.34929791 -0.29429561 0.019991467 4286495614
0.34643614 -0.2885699 0.01999809 4286364028
0.3454822 -0.28666133 0.020000298 4286429821
0.35025182 -0.29620418 0.019989258 4286429821
0.34452829 -0.28475273 0.020002507 4286298235
0.35120577 -0.29811275 0.01998705 4286298235
0.34357437 -0.28284416 0.020004716 4286232442
0.34262043 -0.28093562 0.020006921 4286429821
0.35215971 -0.30002132 0.019984843 4286429821
0.35311362 -0.30192989 0.019982634 4286232442
0.35406753 -0.30383846 0.019980427 4286364028
0.37042528 -0.32095942 0.020948127 4286495614
0.37137756 -0.32191199 0.020946259 4286429821
0.37232983 -0.32286453 0.020944392 4286298235
0.36947301 -0.32000685 0.020949993 4286298235
0.36852077 -0.31905434 0.020951863 4286298235
0.37328207 -0.3238171 0.020942524 4286298235
0.36756849 -0.31810176 0.02095373 4286495614
0.37423435 -0.32476962 0.020940656 4286429821
0.36661622 -0.31714922 0.020955598 4286298235
0.36566398 -0.31619665 0.020957464 4286364028
0.37518659 -0.32572219 0.020938788 4286364028
0.36471167 -0.31524408 0.020959333 4286561407
0.37613887 -0.32667476 0.020936921 4286429821
0.36360809 -0.31433627 0.019961378 4286429821
0.37709117 -0.3276273 0.020935053 4286495614
0.36265403 -0.31338191 0.01996325 4286364028
0.37804341 -0.32857987 0.020933187 4286298235
0.36169997 -0.31242755 0.01996512 4286364028
0.37899566 -0.32953238 0.020931317 4286364028
0.36074591 -0.31147319 0.019966992 4286429821
0.37994793 -0.33048496 0.02092945 4286364028
0.35979182 -0.31051883 0.019968864 4286364028
0.3809002 -0.33143753 0.020927582 4286298235
0.35883775 -0.30956447 0.019970736 4286429821
0.38185245 -0.33239007 0.020925716 4286298235
0.35788366 -0.30861011 0.019972604 4286232442
0.38280475 -0.33334264 0.020923847 4286429821
0.383757 -0.33429521 0.020921979 4286298235
0.3569296 -0.30765575 0.019974476 4286364028
0.35597554 -0.30670139 0.019976348 4286232442
0.38470927 -0.33524773 0.020920111 4286495614
0.35502148 -0.30574703 0.01997822 4286298235
0.38566154 -0.3362003 0.020918244 4286495614
0.34834382 -0.29334125 0.019993339 4286232442
0.34738991 -0.29143268 0.019995546 4286232442
0.34929776 -0.29524982 0.01999113 4286429821
0.34643599 -0.28952411 0.019997753 4286561407
0.34548208 -0.28761554 0.01999996 4286298235
0.35025167 -0.29715839 0.019988921 4286232442
0.34452814 -0.28570694 0.02000217 4286298235
0.35120562 -0.29906696 0.019986715 4286232442
0.34357423 -0.28379837 0.020004379 4286232442
0.34262031 -0.28188983 0.020006584 4286298235
0.35215956 -0.30097553 0.019984506 4286298235
0.35311347 -0.30288413 0.019982297 4286232442
0.35406739 -0.30479267 0.01998009 4286561407
0.39804184 -0.34286904 0.020895982 4286495614
0.39994651 -0.3438217 0.020892583 4286495614
0.39613718 -0.34191632 0.020899381 4286627200
0.40185121 -0.34477443 0.020889185 4286364028
0.40375587 -0.34572715 0.020885784 4286298235
0.39423251 -0.34096366 0.020902781 4286429821
0.40566054 -0.34667981 0.020882387 4286364028
0.40756521 -0.34763253 0.020878986 4286364028
0.39232782 -0.34001094 0.02090618 4286429821
0.40946987 -0.34858522 0.020875588 4286364028
0.4113746 -0.34953791 0.020872189 4286298235
0.39042315 -0.33905822 0.020909579 4286364028
0.38851845 -0.33810556 0.020912977 4286364028
0.38661379 -0.33715284 0.020916378 4286561407
0.36852062 -0.32000673 0.020951526 4286364028
0.36947286 -0.32095927 0.020949658 4286429821
0.37042516 -0.32191184 0.02094779 4286232442
0.36756834 -0.31905419 0.020953394 4286364028
0.37137741 -0.32286438 0.020945923 4286298235
0.36661607 -0.31810161 0.020955261 4286166649
0.36566383 -0.31714907 0.020957129 4286495614
0.36471155 -0.3161965 0.020958995 4286429821
0.37232968 -0.32381696 0.020944055 4286429821
0.37328193 -0.3247695 0.020942189 4286495614
0.36360794 -0.31529048 0.019961042 4286298235
0.3742342 -0.32572204 0.020940319 4286429821
0.37518644 -0.32667461 0.020938452 4286232442
0.36265388 -0.31433612 0.019962912 4286364028
0.36169982 -0.31338176 0.019964783 4286298235
0.37613875 -0.32762715 0.020936584 4286166649
0.36074576 -0.3124274 0.019966654 4286364028
0.37709102 -0.32857972 0.020934718 4286495614
0.3597917 -0.31147304 0.019968526 4286429821
0.37804326 -0.32953227 0.020932849 4286429821
0.3588376 -0.31051871 0.019970398 4286364028
0.37899551 -0.33048481 0.020930981 4286364028
0.37994778 -0.33143738 0.020929113 4286166649
0.35788351 -0.30956435 0.019972268 4286429821
0.35692945 -0.30860996 0.019974139 4286495614
0.38090006 -0.33238992 0.020927247 4286364028
0.38185233 -0.33334249 0.020925378 4286364028
0.35597539 -0.3076556 0.019976011 4286429821
0.3828046 -0.33429503 0.020923512 4286298235
0.38375685 -0.33524761 0.020921642 4286166649
0.35502133 -0.30670124 0.019977883 4286232442
0.38470912 -0.33620015 0.020919776 4286429821
0.39899409 -0.34382159 0.020894114 4286232442
0.40089878 -0.34477428 0.020890716 4286166649
0.39708942 -0.34286889 0.020897515 4286561407
0.40280348 -0.345727 0.020887315 4286364028
0.40470815 -0.34667966 0.020883918 4286429821
0.39518476 -0.34191617 0.020900913 4286364028
0.40661281 -0.34763238 0.020880518 4286495614
0.40851748 -0.34858507 0.020877119 4286232442
0.39328009 -0.34096348 0.020904312 4286232442
0.41042218 -0.34953776 0.02087372 4286232442
0.39137542 -0.34001079 0.020907711 4286298235
0.38947076 -0.33905807 0.020911111 4286298235
0.38756603 -0.33810541 0.02091451 4286364028
0.34738976 -0.29238689 0.019995209 4286232442
0.34643584 -0.29047832 0.019997416 4286298235
0.3483437 -0.29429549 0.019993002 4286298235
0.34548193 -0.28856975 0.019999625 4286364028
0.34452799 -0.28666115 0.020001832 4286364028
0.34929761 -0.29620403 0.019990792 4286495614
0.34357408 -0.28475258 0.020004041 4286627200
0.35025153 -0.2981126 0.019988583 4286429821
0.34262016 -0.28284404 0.020006249 4286364028
0.3512055 -0.30002117 0.019986378 4286298235
0.35215941 -0.30192977 0.019984169 4286495614
0.35311332 -0.30383834 0.019981962 4286364028
0.35406727 -0.30574688 0.019979753 4286495614
0.38566139 -0.33715269 0.020917909 4286232442
0.3980417 -0.34382144 0.020895645 4286232442
0.39994639 -0.34477413 0.020892248 4286364028
0.39613703 -0.34286875 0.020899046 4286364028
0.40185106 -0.34572685 0.020888848 4286100856
0.40375572 -0.34667954 0.020885449 4286429821
0.39423236 -0.34191605 0.020902444 4286035063
0.40566039 -0.34763223 0.02088205 4286429821
0.40756506 -0.34858492 0.02087865 4286166649
0.39232767 -0.34096336 0.020905845 4286364028
0.40946975 -0.34953764 0.020875251 4286166649
0.390423 -0.34001064 0.020909242 4286166649
0.38851833 -0.33905795 0.020912642 4286364028
0.38661364 -0.33810526 0.020916041 4286364028
0.34738961 -0.2933411 0.019994874 4286364028
0.3464357 -0.29143253 0.019997079 4286429821
0.34834355 -0.2952497 0.019992664 4286298235
0.34548178 -0.28952396 0.019999288 4286298235
0.34452787 -0.28761539 0.020001495 4286495614
0.34929746 -0.29715824 0.019990455 4286166649
0.34357393 -0.28570679 0.020003704 4286232442
0.35025138 -0.29906681 0.019988248 4286298235
0.34262002 -0.28379825 0.020005912 4286298235
0.35120535 -0.30097538 0.019986041 4286232442
0.35215926 -0.30288398 0.019983832 4286298235
0.35311317 -0.30479255 0.019981625 4286429821
0.36852047 -0.32095915 0.020951191 4286561407
0.36756819 -0.32000661 0.020953057 4286561407
0.36947274 -0.32191169 0.020949321 4286298235
0.36661592 -0.31905404 0.020954926 4286627200
0.37042502 -0.32286423 0.020947454 4286364028
0.36566368 -0.31810147 0.020956792 4286364028
0.37137726 -0.32381681 0.020945586 4286627200
0.3647114 -0.31714892 0.02095866 4286166649
0.37232953 -0.32476938 0.02094372 4286298235
0.36360779 -0.31624469 0.019960705 4286495614
0.37328178 -0.32572192 0.020941852 4286429821
0.37423405 -0.32667446 0.020939983 4286100856
0.36265373 -0.31529033 0.019962577 4286495614
0.37518632 -0.327627 0.020938115 4286429821
0.36169967 -0.31433597 0.019964445 4286298235
0.3761386 -0.32857957 0.020936249 4286429821
0.36074561 -0.31338161 0.019966317 4286364028
0.37709087 -0.32953215 0.020934381 4286692993
0.35979155 -0.31242725 0.019968189 4286429821
0.35883749 -0.31147292 0.019970061 4286429821
0.37804312 -0.33048469 0.020932514 4286232442
0.37899536 -0.33143723 0.020930644 4286232442
0.37994763 -0.33238977 0.020928778 4286495614
0.35788336 -0.31051856 0.019971931 4286495614
0.3569293 -0.30956417 0.019973803 4286232442
0.38089994 -0.33334234 0.02092691 4286495614
0.38185218 -0.33429492 0.020925043 4286298235
0.38280445 -0.33524746 0.020923175 4286364028
0.35597524 -0.30860981 0.019975673 4286364028
0.3837567 -0.33620003 0.020921307 4286298235
0.35502118 -0.30765545 0.019977545 4286364028
0.35406712 -0.30670109 0.019979415 4286298235
0.38470897 -0.33715254 0.02091944 4286429821
0.39899397 -0.34477401 0.020893779 4286429821
0.40089864 -0.3457267 0.020890379 4286495614
0.39708927 -0.34382129 0.020897178 4286429821
0.40280333 -0.34667939 0.02088698 4286166649
0.404708 -0.34763208 0.020883581 4286495614
0.39518461 -0.3428686 0.020900577 4286364028
0.40661266 -0.34858477 0.020880183 4286495614
0.40851736 -0.34953749 0.020876782 4286166649
0.39327994 -0.34191591 0.020903975 4286429821
0.39137527 -0.34096318 0.020907376 4286495614
0.38947061 -0.34001049 0.020910773 4286100856
0.38756591 -0.3390578 0.020914175 4286429821
0.34643555 -0.29238674 0.019996742 4286364028
0.34548163 -0.29047817 0.019998951 4286364028
0.34738949 -0.29429531 0.019994536 4286100856
0.34452772 -0.2885696 0.02000116 4286364028
0.34357378 -0.28666103 0.020003367 4286429821
0.3483434 -0.29620391 0.019992327 4286298235
0.34261987 -0.28475246 0.020005574 4286429821
0.34929731 -0.29811245 0.019990118 4286364028
0.35025126 -0.30002102 0.019987911 4286298235
0.3512052 -0.30192959 0.019985704 4286495614
0.35215911 -0.30383819 0.019983497 4286429821
0.35311306 -0.30574676 0.019981287 4286364028
0.38566124 -0.33810511 0.020917572 4286364028
0.3464354 -0.29334095 0.019996407 4286627200
0.34548149 -0.29143238 0.019998614 4286298235
0.34738934 -0.29524955 0.019994199 4286232442
0.34452757 -0.28952381 0.020000823 4286364028
0.34357366 -0.28761524 0.02000303 4286429821
0.34834325 -0.29715812 0.01999199 4286561407
0.34261972 -0.28570667 0.020005237 4286298235
0.34929717 -0.29906666 0.019989783 4286364028
0.35025111 -0.30097523 0.019987574 4286561407
0.35120505 -0.30288383 0.019985367 4286298235
0.35215896 -0.3047924 0.019983159 4286495614
0.39804158 -0.34477386 0.02089531 4286495614
0.39994624 -0.34572655 0.02089191 4286166649
0.39613688 -0.34382114 0.020898709 4286561407
0.40185091 -0.34667924 0.020888513 4286232442
0.40375558 -0.34763196 0.020885112 4286429821
0.39423221 -0.34286848 0.020902108 4286429821
0.40566024 -0.34858462 0.020881714 4286364028
0.40756494 -0.34953734 0.020878313 4286232442
0.39232752 -0.34191576 0.020905508 4286495614
0.39042285 -0.34096307 0.020908907 4286298235
0.38851818 -0.34001037 0.020912305 4286561407
0.38661352 -0.33905765 0.020915706 4286364028
0.37042487 -0.32381666 0.020947117 4286495614
0.37137711 -0.3247692 0.020945251 4286298235
0.36947259 -0.32286409 0.020948986 4286364028
0.37232938 -0.32572177 0.020943383 4286364028
0.36852035 -0.32191157 0.020950854 4286100856
0.37328163 -0.32667434 0.020941516 4286429821
0.36756805 -0.320959 0.020952722 4286495614
0.37423393 -0.32762685 0.020939646 4286298235
0.36661577 -0.32000643 0.020954588 4286561407
0.37518618 -0.32857943 0.02093778 4286100856
0.36566353 -0.31905389 0.020956457 4286364028
0.37613845 -0.32953197 0.020935912 4286429821
0.37709072 -0.33048454 0.020934045 4286298235
0.36471125 -0.31810132 0.020958323 4286364028
0.36360765 -0.31719893 0.019960368 4286298235
0.37804297 -0.33143711 0.020932177 4286495614
0.36265358 -0.31624454 0.01996224 4286166649
0.36169952 -0.31529018 0.01996411 4286166649
0.37899521 -0.33238962 0.020930309 4286166649
0.37994751 -0.33334219 0.020928441 4286298235
0.36074546 -0.31433582 0.01996598 4286298235
0.3597914 -0.31338146 0.019967852 4286298235
0.35883734 -0.31242713 0.019969724 4286429821
